ply
format ascii 1.0
comment exported from agv_ros accumulated point cloud pickle
element vertex 1215
property float x
property float y
property float z
property float intensity
property int count
end_header
2.753403 -2.169130 0.181932 0.000000 3
2.740227 -2.124928 0.173974 0.000000 13
2.738893 -2.074752 0.175090 0.000000 17
2.741463 -2.023232 0.175795 0.000000 17
2.738636 -1.976685 0.175015 0.000000 14
2.755531 -1.959015 0.176377 0.000000 5
2.737577 -1.924610 0.176489 0.000000 13
2.738262 -1.872801 0.179045 0.000000 17
2.739824 -1.825640 0.176619 0.000000 16
2.737931 -1.776105 0.182234 0.000000 14
2.752658 -1.726600 0.178523 0.000000 7
2.741483 -1.728675 0.173800 0.000000 19
2.740605 -1.677074 0.174151 0.000000 26
2.763395 -1.676155 0.186100 0.000000 3
2.753095 -1.624632 0.179052 0.000000 10
2.739988 -1.627915 0.168408 0.000000 27
2.741024 -1.573511 0.174525 0.000000 33
2.739045 -1.523379 0.175623 0.000000 35
2.772673 -1.493607 0.176657 0.000000 26
2.821906 1.504258 0.164008 0.000000 4
2.779797 1.506080 0.165852 0.000000 3
2.740432 1.514789 0.166612 0.000000 3
2.747135 1.572013 0.188914 0.000000 1
2.745376 1.615762 0.188868 0.000000 1
2.729949 1.670320 0.188948 0.000000 2
2.741269 1.752478 0.188704 0.000000 1
2.743589 1.803345 0.188602 0.000000 1
2.742912 1.852066 0.188534 0.000000 1
2.741233 1.926168 0.188437 0.000000 2
2.737106 1.977096 0.194166 0.000000 2
2.745896 2.066173 0.193682 0.000000 2
2.759433 2.131960 0.187923 0.000000 1
2.736423 2.165139 0.193344 0.000000 2
2.741990 2.228048 0.193040 0.000000 2
2.732970 2.274982 0.192896 0.000000 2
2.732671 2.329170 0.187883 0.000000 1
2.691403 2.342327 0.192861 0.000000 2
2.635599 2.332507 0.193205 0.000000 2
2.593247 2.338702 0.193408 0.000000 2
2.529598 2.335175 0.192553 0.000000 3
2.478556 2.339625 0.194150 0.000000 2
2.428979 2.333651 0.194436 0.000000 2
2.407540 2.377560 0.195359 0.000000 3
2.409057 2.458080 0.191002 0.000000 1
2.800725 3.092573 0.185904 0.000000 1
-2.156266 -1.363653 0.304996 0.000000 1
-2.138844 -1.475024 0.321840 0.000000 11
-2.141008 -1.526059 0.325968 0.000000 9
-2.151889 -1.525741 0.309596 0.000000 3
-2.141165 -1.572549 0.319922 0.000000 8
-2.151719 -1.580438 0.318086 0.000000 4
-2.140071 -1.619268 0.320648 0.000000 6
-2.154013 -1.619761 0.325319 0.000000 2
-2.134899 -1.674735 0.319034 0.000000 6
-2.151562 -1.721600 0.307510 0.000000 1
-2.143398 -1.727708 0.332241 0.000000 3
-2.142960 -1.767164 0.326635 0.000000 4
-2.155610 -1.807462 0.308532 0.000000 1
-2.140497 -1.819192 0.327433 0.000000 2
-1.078425 -3.291326 0.311743 0.000000 4
-1.266939 -4.936670 0.357308 0.000000 5
-1.241432 -4.957024 0.355076 0.000000 1
-0.975317 -4.952841 0.362081 0.000000 3
-0.409835 -4.956514 0.342470 0.000000 1
0.365854 -4.958608 0.337211 0.000000 3
0.669223 -4.950344 0.333344 0.000000 1
1.876267 -4.938685 0.338323 0.000000 6
1.943394 -4.954144 0.333155 0.000000 1
2.028065 -4.937517 0.341728 0.000000 5
2.086758 -4.952614 0.340844 0.000000 4
2.125504 -4.939225 0.340910 0.000000 5
2.176785 -4.939106 0.341886 0.000000 11
2.261910 -4.954463 0.337067 0.000000 2
2.276754 -4.937415 0.341645 0.000000 8
2.325561 -4.932135 0.343607 0.000000 8
2.379800 -4.941707 0.340922 0.000000 7
2.429599 -4.935788 0.341837 0.000000 7
2.477814 -4.940304 0.341709 0.000000 4
2.512785 -4.928238 0.341165 0.000000 5
2.572498 -4.936701 0.343052 0.000000 6
2.631269 -4.931481 0.341994 0.000000 3
2.674237 -4.935366 0.344206 0.000000 4
2.725672 -4.939786 0.343140 0.000000 5
2.774527 -4.936317 0.342857 0.000000 5
2.830236 -4.938486 0.343597 0.000000 4
2.881438 -4.939407 0.343960 0.000000 4
2.938593 -4.932760 0.340021 0.000000 2
2.981465 -4.940789 0.342680 0.000000 3
3.025897 -4.932657 0.344039 0.000000 4
3.444449 -3.266705 0.327703 0.000000 2
2.736072 -2.373735 0.280589 0.000000 10
2.739934 -2.330015 0.279484 0.000000 9
2.739200 -2.279926 0.277898 0.000000 11
2.740204 -2.227935 0.275555 0.000000 12
2.756003 -2.210345 0.284146 0.000000 1
2.737782 -2.178807 0.275393 0.000000 12
2.737645 -2.124000 0.274567 0.000000 13
2.751742 -2.074371 0.277222 0.000000 2
2.742260 -2.075615 0.275894 0.000000 15
2.737465 -2.023109 0.279533 0.000000 16
2.738247 -1.973849 0.274655 0.000000 21
2.737538 -1.922670 0.275125 0.000000 19
2.755129 -1.905691 0.289013 0.000000 2
2.739823 -1.874327 0.274910 0.000000 18
2.737171 -1.825866 0.278078 0.000000 24
2.739755 -1.774639 0.275506 0.000000 24
2.754348 -1.767892 0.272792 0.000000 4
2.738952 -1.724520 0.273735 0.000000 24
2.737851 -1.675572 0.273776 0.000000 22
2.753553 -1.627599 0.278929 0.000000 10
2.738575 -1.624044 0.277271 0.000000 24
2.753980 -1.575527 0.262602 0.000000 5
2.739548 -1.572210 0.279341 0.000000 26
2.769598 -1.510785 0.275502 0.000000 28
2.741630 -1.519949 0.275079 0.000000 34
2.467402 2.351335 0.315441 0.000000 3
2.803517 3.094626 0.338175 0.000000 1
-2.139789 -0.289141 0.323196 0.000000 2
-2.139652 -0.327069 0.330021 0.000000 6
-2.135426 -0.382210 0.320874 0.000000 5
-2.138813 -0.424075 0.327151 0.000000 5
-2.158074 -0.535218 0.319852 0.000000 3
-2.158616 -0.645025 0.315311 0.000000 3
-2.135830 -0.871610 0.378523 0.000000 10
-2.136994 -0.929919 0.380930 0.000000 11
-2.130727 -0.977724 0.378117 0.000000 7
-2.136802 -1.021324 0.378173 0.000000 6
-2.150129 -1.022942 0.369413 0.000000 1
-2.136679 -1.072287 0.376257 0.000000 9
-2.139125 -1.120280 0.378667 0.000000 6
-2.133589 -1.173105 0.376497 0.000000 9
-2.136132 -1.223172 0.379368 0.000000 7
-2.155710 -1.248909 0.370747 0.000000 1
-2.964209 -4.950034 0.545534 0.000000 1
-2.369001 -4.933973 0.518299 0.000000 3
-2.126518 -4.934648 0.509488 0.000000 2
-2.085810 -4.941130 0.508522 0.000000 2
-2.042769 -4.942578 0.507221 0.000000 2
-1.988310 -4.919338 0.504027 0.000000 1
-1.042440 -3.642649 0.413377 0.000000 5
-1.034676 -3.721293 0.422079 0.000000 6
-0.338694 -4.953377 0.463393 0.000000 1
-0.120623 -4.955839 0.465173 0.000000 2
-0.086090 -4.958364 0.465219 0.000000 2
0.042151 -4.951026 0.458913 0.000000 1
1.272566 -4.954009 0.467951 0.000000 3
1.570138 -4.953610 0.475427 0.000000 5
2.211911 -4.958476 0.481362 0.000000 2
2.424568 -4.936757 0.473905 0.000000 10
2.476273 -4.937642 0.476223 0.000000 8
2.520577 -4.935435 0.474579 0.000000 7
2.566064 -4.933345 0.477188 0.000000 9
2.627914 -4.937200 0.479208 0.000000 7
2.681906 -4.937019 0.477983 0.000000 7
2.727230 -4.939444 0.477526 0.000000 7
2.784955 -4.952428 0.492526 0.000000 2
2.821822 -4.936796 0.479653 0.000000 7
2.875192 -4.935041 0.478513 0.000000 6
2.948351 -4.950743 0.490639 0.000000 1
2.974104 -4.935907 0.479178 0.000000 6
3.028630 -4.934247 0.479855 0.000000 6
3.442083 -3.473619 0.430708 0.000000 2
3.448020 -3.434426 0.443188 0.000000 1
3.455718 -3.394810 0.442124 0.000000 1
3.454985 -3.318874 0.431754 0.000000 4
3.445285 -3.262176 0.441549 0.000000 3
3.453945 -3.218789 0.436159 0.000000 1
3.444440 -3.180833 0.438397 0.000000 3
3.451334 -3.132710 0.433282 0.000000 1
3.456149 -3.077866 0.434282 0.000000 4
3.442041 -3.008207 0.433560 0.000000 2
3.440414 -2.962972 0.427590 0.000000 1
3.439722 -2.929876 0.428089 0.000000 4
3.462418 -2.876317 0.425992 0.000000 2
3.460314 -2.816730 0.424204 0.000000 1
3.442485 -2.769119 0.422099 0.000000 1
2.743913 -2.375539 0.379203 0.000000 14
2.742189 -2.317041 0.373822 0.000000 10
2.735862 -2.272028 0.372160 0.000000 10
2.751954 -2.259737 0.372453 0.000000 2
2.740647 -2.224478 0.369082 0.000000 15
2.754751 -2.209384 0.376832 0.000000 1
2.751275 -2.165853 0.368550 0.000000 2
2.822100 -1.504768 0.374157 0.000000 22
2.750268 1.711557 0.426119 0.000000 1
2.740891 1.878484 0.424672 0.000000 6
2.739455 1.934545 0.438239 0.000000 5
2.740483 1.979334 0.425550 0.000000 5
2.741870 2.065612 0.429363 0.000000 4
2.739445 2.126519 0.427475 0.000000 6
2.752952 2.177516 0.446299 0.000000 1
2.740140 2.222921 0.428904 0.000000 5
2.623458 2.338803 0.424366 0.000000 8
2.526809 2.337609 0.425223 0.000000 7
2.472290 2.340505 0.428637 0.000000 11
2.420258 2.336112 0.420701 0.000000 11
2.412010 2.370638 0.446296 0.000000 3
2.394859 2.424744 0.443803 0.000000 2
2.805729 3.103959 0.494416 0.000000 2
-2.155522 -0.389220 0.374613 0.000000 1
-2.129240 -0.624820 0.377286 0.000000 7
-2.138985 -0.667321 0.379153 0.000000 7
-2.133614 -0.719679 0.380000 0.000000 9
-2.138218 -0.769608 0.378703 0.000000 7
-2.127025 -0.816484 0.377671 0.000000 8
-2.151514 -0.870971 0.434389 0.000000 2
-2.150713 -0.985543 0.435402 0.000000 1
-1.052360 -2.028383 0.364377 0.000000 1
-1.048146 -2.158031 0.372646 0.000000 1
-2.702685 -4.950745 0.681506 0.000000 1
-2.508555 -4.956220 0.670460 0.000000 1
-2.462739 -4.959895 0.668115 0.000000 1
-2.424350 -4.935867 0.662063 0.000000 2
-2.364340 -4.953718 0.662088 0.000000 1
-2.313159 -4.945457 0.657268 0.000000 2
-2.258849 -4.930876 0.653378 0.000000 2
-2.220450 -4.943321 0.652509 0.000000 2
-2.174590 -4.941864 0.650166 0.000000 2
-1.990681 -4.926501 0.640126 0.000000 1
-1.039920 -3.784541 0.513348 0.000000 4
-1.041157 -3.882597 0.523955 0.000000 3
-1.351497 -4.950247 0.613705 0.000000 1
-1.118492 -4.931503 0.619603 0.000000 5
-1.089858 -4.960232 0.605200 0.000000 1
0.278542 -4.957058 0.583642 0.000000 2
1.373345 -4.938010 0.589390 0.000000 10
1.426476 -4.939689 0.591046 0.000000 9
1.476912 -4.937608 0.590892 0.000000 11
1.521203 -4.937395 0.590755 0.000000 6
1.570869 -4.937512 0.592298 0.000000 7
1.620018 -4.943900 0.590915 0.000000 10
1.674837 -4.937782 0.593287 0.000000 9
1.728922 -4.957414 0.590208 0.000000 3
1.776507 -4.934308 0.592733 0.000000 7
1.826832 -4.938703 0.590759 0.000000 10
2.396259 -4.953012 0.620031 0.000000 1
2.631761 -4.933632 0.622567 0.000000 4
2.682673 -4.942255 0.621241 0.000000 5
2.732252 -4.940668 0.623815 0.000000 3
2.767380 -4.930871 0.625948 0.000000 4
2.822199 -4.936123 0.624564 0.000000 7
2.882407 -4.939996 0.622818 0.000000 6
2.920662 -4.931006 0.623516 0.000000 6
2.973248 -4.938604 0.625640 0.000000 8
3.443328 -3.472305 0.567202 0.000000 3
3.451873 -3.430359 0.567065 0.000000 3
3.458277 -3.379428 0.571048 0.000000 4
3.444739 -3.325251 0.566404 0.000000 4
3.438773 -2.915903 0.537230 0.000000 2
3.434948 -2.880251 0.545856 0.000000 1
3.437410 -2.823369 0.543573 0.000000 2
3.454985 -2.774902 0.542771 0.000000 1
2.754238 -2.180064 0.468742 0.000000 1
2.760012 -1.785125 0.477973 0.000000 4
2.739881 -1.524017 0.424534 0.000000 26
2.825876 1.493847 0.537314 0.000000 12
2.775473 1.504580 0.532961 0.000000 10
2.740020 1.518163 0.524237 0.000000 6
2.737613 1.564199 0.529856 0.000000 6
2.737266 1.620899 0.531390 0.000000 5
2.736243 1.670054 0.535665 0.000000 3
2.739476 1.727424 0.536014 0.000000 4
2.737866 1.773380 0.534673 0.000000 3
2.751137 2.288291 0.583492 0.000000 1
2.727750 2.339327 0.582801 0.000000 5
2.678218 2.342406 0.577704 0.000000 4
2.615582 2.333336 0.572639 0.000000 5
0.920608 0.842504 0.387764 0.000000 7
0.882701 0.837602 0.394302 0.000000 5
0.834041 0.841063 0.392867 0.000000 3
0.823175 0.864208 0.385157 0.000000 15
0.755418 0.905154 0.394402 0.000000 4
0.726320 0.918661 0.393984 0.000000 8
-2.136509 -1.475537 0.524950 0.000000 6
-2.141853 -1.533202 0.531069 0.000000 5
-2.132993 -1.579017 0.527649 0.000000 6
-2.135177 -1.625611 0.533080 0.000000 5
-2.133980 -1.665359 0.524706 0.000000 3
-2.148877 -1.710894 0.515873 0.000000 2
-2.150789 -1.742818 0.517373 0.000000 1
-2.140427 -1.770324 0.508745 0.000000 2
-1.052726 -1.668497 0.374900 0.000000 3
-3.012009 -4.945314 0.854195 0.000000 1
-2.970280 -4.961864 0.852362 0.000000 1
-2.530950 -4.941459 0.814115 0.000000 3
-2.455831 -4.950839 0.811173 0.000000 1
-2.375327 -4.934987 0.803674 0.000000 2
-2.313723 -4.948955 0.800742 0.000000 1
-2.133220 -4.950601 0.788498 0.000000 1
-1.038362 -3.476606 0.575852 0.000000 10
-1.040216 -3.875476 0.621070 0.000000 7
-1.353463 -4.959573 0.744272 0.000000 1
-1.235834 -4.950339 0.737682 0.000000 1
-1.012918 -4.950459 0.733258 0.000000 2
0.180868 -4.913429 0.697902 0.000000 1
1.186503 -4.958537 0.714922 0.000000 1
1.776832 -4.951598 0.733864 0.000000 1
1.818056 -4.954033 0.729132 0.000000 3
1.875542 -4.934202 0.723504 0.000000 10
1.929349 -4.941225 0.722468 0.000000 11
1.975920 -4.939781 0.723223 0.000000 9
2.028234 -4.957621 0.732120 0.000000 2
2.072646 -4.939013 0.725576 0.000000 11
2.123394 -4.933312 0.728161 0.000000 7
2.173779 -4.935975 0.723981 0.000000 13
2.679661 -4.934548 0.769798 0.000000 3
2.725237 -4.935826 0.772570 0.000000 3
2.777309 -4.933582 0.774597 0.000000 4
2.828800 -4.932029 0.778286 0.000000 3
2.872735 -4.936419 0.782959 0.000000 2
2.930291 -4.935689 0.783576 0.000000 4
3.018429 -4.938251 0.790665 0.000000 3
3.456862 -3.366347 0.683446 0.000000 2
3.459222 -3.322581 0.682522 0.000000 3
3.447317 -3.274916 0.672085 0.000000 4
3.445016 -3.225616 0.672303 0.000000 2
3.434742 -3.162694 0.684862 0.000000 1
3.448484 -3.129417 0.684003 0.000000 1
3.449411 -3.088523 0.681487 0.000000 1
3.445885 -3.045408 0.678447 0.000000 1
3.455336 -3.010323 0.677180 0.000000 1
3.461586 -2.973609 0.675543 0.000000 1
3.449720 -2.927061 0.671606 0.000000 1
3.459687 -2.815128 0.666070 0.000000 1
2.752246 -2.324316 0.568937 0.000000 1
2.737854 -1.923450 0.528979 0.000000 18
2.739275 -1.874210 0.526503 0.000000 17
2.738435 -1.823833 0.531551 0.000000 14
2.737384 -1.778783 0.525375 0.000000 25
2.736792 -1.725296 0.531850 0.000000 20
2.698590 -1.705363 0.537066 0.000000 1
2.740181 -1.676550 0.527497 0.000000 25
2.738618 -1.626334 0.527102 0.000000 23
2.738567 -1.575431 0.525216 0.000000 36
2.740493 -1.520083 0.528051 0.000000 33
2.828320 -1.506749 0.527653 0.000000 20
2.775634 1.493016 0.620636 0.000000 16
2.740576 1.510115 0.628084 0.000000 7
2.753587 1.858574 0.677983 0.000000 1
2.740244 1.932007 0.673718 0.000000 4
2.735788 1.970399 0.682139 0.000000 5
2.743070 2.057326 0.679165 0.000000 2
2.417812 2.333414 0.687003 0.000000 5
-2.136077 -0.289940 0.530512 0.000000 2
-2.136800 -0.326061 0.532536 0.000000 5
-2.138091 -0.375416 0.524136 0.000000 5
-2.155663 -0.418603 0.533814 0.000000 3
-2.135794 -0.431592 0.525171 0.000000 2
-2.134156 -0.476063 0.520271 0.000000 5
-2.136490 -0.529659 0.522178 0.000000 4
-2.156617 -0.683215 0.505236 0.000000 1
-2.152774 -0.782077 0.532506 0.000000 3
-2.138507 -0.872256 0.574698 0.000000 13
-2.152142 -0.906604 0.561506 0.000000 2
-2.134231 -0.928060 0.573365 0.000000 12
-2.132551 -0.975243 0.575295 0.000000 11
-2.135722 -1.024713 0.575878 0.000000 8
-2.157005 -1.019773 0.565459 0.000000 3
-2.135688 -1.071520 0.574539 0.000000 10
-2.133591 -1.121251 0.571815 0.000000 10
-2.137528 -1.171598 0.569464 0.000000 9
-2.136428 -1.222071 0.574945 0.000000 10
-2.154768 -1.229991 0.563467 0.000000 2
-2.153458 -1.279200 0.571959 0.000000 4
-1.054546 -1.715139 0.425653 0.000000 3
-2.950855 -4.937689 1.002081 0.000000 1
-2.593724 -4.937855 0.964652 0.000000 2
-2.549112 -4.944606 0.961619 0.000000 2
-2.479951 -4.936102 0.953840 0.000000 3
-2.443696 -4.933327 0.953079 0.000000 1
-2.361471 -4.953273 0.948400 0.000000 1
-1.992866 -4.935819 0.915475 0.000000 1
-1.041948 -3.576837 0.664607 0.000000 6
-0.920160 -4.940040 0.869388 0.000000 6
-0.468353 -4.959480 0.838460 0.000000 2
1.128392 -4.936440 0.836044 0.000000 7
1.223027 -4.934615 0.838146 0.000000 7
1.275751 -4.939028 0.837610 0.000000 8
1.324908 -4.935391 0.838058 0.000000 7
1.656096 -4.954892 0.863455 0.000000 1
2.021467 -4.937210 0.866070 0.000000 5
2.075309 -4.935851 0.865824 0.000000 6
2.122374 -4.932860 0.870471 0.000000 3
2.175104 -4.936132 0.871579 0.000000 6
2.227929 -4.933660 0.870240 0.000000 5
2.276915 -4.940298 0.881098 0.000000 5
2.687494 -4.944435 0.916027 0.000000 2
2.729196 -4.942206 0.914296 0.000000 3
2.779487 -4.937639 0.915135 0.000000 4
2.834703 -4.943983 0.922454 0.000000 3
2.880410 -4.940618 0.925447 0.000000 3
2.930304 -4.935649 0.926507 0.000000 4
3.451885 -2.967390 0.798418 0.000000 1
3.452506 -2.927923 0.795524 0.000000 1
3.441562 -2.882522 0.790798 0.000000 1
3.438010 -2.841688 0.787376 0.000000 1
3.453276 -2.811133 0.787100 0.000000 1
3.454677 -2.773496 0.784620 0.000000 1
2.738964 -2.122975 0.624559 0.000000 17
2.735505 -2.067414 0.629088 0.000000 13
2.742179 -2.028824 0.629152 0.000000 19
2.740647 -1.971818 0.627528 0.000000 17
2.740210 -1.927189 0.626998 0.000000 15
2.751551 -1.907861 0.632912 0.000000 3
2.737975 -1.873061 0.624307 0.000000 18
2.739775 -1.826811 0.626406 0.000000 20
2.740726 -1.776141 0.623126 0.000000 20
2.739141 -1.724503 0.623670 0.000000 16
2.738827 -1.672899 0.623260 0.000000 21
2.740341 -1.622471 0.627072 0.000000 23
2.739667 -1.573159 0.624812 0.000000 24
2.777433 -1.496133 0.620157 0.000000 17
2.740527 1.725843 0.781977 0.000000 6
2.743278 1.778464 0.786484 0.000000 2
2.740779 1.824397 0.783707 0.000000 3
2.738325 2.165818 0.840313 0.000000 2
2.738526 2.230565 0.830331 0.000000 3
2.741618 2.267171 0.819149 0.000000 4
2.659411 2.350734 0.849674 0.000000 1
2.623779 2.338820 0.826933 0.000000 10
2.569319 2.339806 0.837369 0.000000 8
2.524662 2.338099 0.838936 0.000000 4
2.473844 2.337041 0.831854 0.000000 8
2.403531 2.378734 0.831931 0.000000 1
2.396610 2.431963 0.837999 0.000000 1
1.077474 0.927050 0.523209 0.000000 24
-2.136159 -0.720954 0.569611 0.000000 9
-2.137932 -0.769790 0.574131 0.000000 10
-2.140705 -0.825394 0.574118 0.000000 10
-2.157525 -1.623661 0.661630 0.000000 2
-2.132840 -1.726699 0.678699 0.000000 5
-2.134161 -1.781898 0.669092 0.000000 4
-2.153378 -1.829215 0.665772 0.000000 1
-2.591700 -4.935358 1.112706 0.000000 2
-2.528327 -4.936466 1.105490 0.000000 3
-2.498231 -4.946147 1.106957 0.000000 1
-2.406452 -4.952092 1.098120 0.000000 1
-2.041076 -4.942579 1.060166 0.000000 2
-2.000672 -4.953882 1.058286 0.000000 1
-1.130307 -3.296149 0.704239 0.000000 2
-1.041998 -3.294186 0.693163 0.000000 3
-1.037063 -3.325596 0.725611 0.000000 6
-1.037851 -3.935737 0.816325 0.000000 4
-1.331722 -4.937882 1.022864 0.000000 5
-1.311844 -4.957327 1.003681 0.000000 1
-1.028085 -4.955052 0.980029 0.000000 4
-0.776208 -4.950885 0.978731 0.000000 2
-0.440521 -4.952123 0.975574 0.000000 3
0.026049 -4.955668 0.972029 0.000000 4
0.382649 -4.936554 0.943192 0.000000 3
0.491684 -4.938642 0.938180 0.000000 2
0.525811 -4.953106 0.968593 0.000000 3
0.935227 -4.954945 0.977050 0.000000 2
1.417372 -4.952697 0.984524 0.000000 1
1.530010 -4.938398 0.971372 0.000000 6
1.574594 -4.934857 0.972128 0.000000 8
1.622370 -4.940321 0.971834 0.000000 8
1.670368 -4.937367 0.976819 0.000000 8
2.172736 -4.940345 1.013565 0.000000 3
2.227855 -4.940230 1.017773 0.000000 5
2.284994 -4.942732 1.020695 0.000000 3
2.323125 -4.933241 1.021891 0.000000 3
2.546750 -4.955832 1.067314 0.000000 1
2.729242 -4.929794 1.080327 0.000000 1
2.780472 -4.929638 1.085246 0.000000 1
2.830148 -4.942882 1.073183 0.000000 2
2.881198 -4.942187 1.070256 0.000000 3
2.739272 -2.223352 0.719288 0.000000 12
2.755491 -2.179369 0.750338 0.000000 1
2.740897 -2.130184 0.722319 0.000000 11
2.750985 -2.113319 0.724330 0.000000 3
2.751737 -2.074571 0.733609 0.000000 2
2.738569 -2.070894 0.724623 0.000000 14
2.739920 -2.024386 0.720598 0.000000 12
2.756431 -2.006707 0.725135 0.000000 2
2.739849 -1.971520 0.722213 0.000000 16
2.742490 -1.924509 0.727622 0.000000 16
2.741648 -1.872131 0.731833 0.000000 14
2.751548 -1.833134 0.732223 0.000000 2
2.830448 -1.507400 0.725150 0.000000 11
2.824643 1.506800 0.885599 0.000000 4
2.780250 1.505452 0.871200 0.000000 5
2.738993 1.518597 0.875848 0.000000 5
2.743344 1.633989 0.884076 0.000000 4
2.752399 1.956564 0.939948 0.000000 1
2.736182 1.976206 0.928407 0.000000 2
2.743729 2.285801 0.989330 0.000000 2
2.723538 2.333040 0.980180 0.000000 9
0.974345 0.862117 0.578679 0.000000 20
-2.138710 -0.288747 0.672241 0.000000 2
-2.140160 -1.275649 0.728035 0.000000 7
-2.139244 -1.329357 0.720203 0.000000 7
-2.152916 -1.363572 0.711973 0.000000 1
-2.137039 -1.379189 0.730669 0.000000 7
-2.138516 -1.426563 0.738258 0.000000 4
-2.154260 -1.430925 0.716082 0.000000 2
-2.158029 -1.466733 0.717812 0.000000 3
-2.136832 -1.484020 0.725988 0.000000 3
-2.138550 -1.520909 0.716275 0.000000 2
-2.155824 -1.540548 0.720606 0.000000 1
-1.052705 -1.726890 0.523010 0.000000 8
-2.579476 -4.940257 1.261566 0.000000 3
-2.521448 -4.940552 1.255528 0.000000 2
-2.486737 -4.930027 1.251570 0.000000 1
-2.084695 -4.943037 1.206436 0.000000 2
-2.041275 -4.950727 1.203405 0.000000 1
-1.988575 -4.936659 1.188010 0.000000 3
-0.874434 -4.941494 1.121769 0.000000 8
-0.613526 -4.954771 1.094214 0.000000 1
0.676808 -4.953428 1.084475 0.000000 1
0.819757 -4.951605 1.088539 0.000000 1
0.873671 -4.951585 1.085293 0.000000 2
1.021315 -4.955529 1.097420 0.000000 2
1.078217 -4.931755 1.084712 0.000000 6
1.127729 -4.934939 1.088274 0.000000 7
1.179218 -4.928288 1.084083 0.000000 6
1.726261 -4.943432 1.120237 0.000000 5
1.773060 -4.938309 1.119953 0.000000 5
1.825596 -4.958213 1.149209 0.000000 1
1.870280 -4.932381 1.125749 0.000000 4
2.275464 -4.936742 1.185719 0.000000 2
2.349603 -4.944557 1.194590 0.000000 1
2.382559 -4.941817 1.168746 0.000000 3
2.432572 -4.931844 1.169161 0.000000 3
2.675537 -4.936761 1.239406 0.000000 8
2.744462 -4.955071 1.244765 0.000000 2
2.796479 -4.950074 1.244129 0.000000 1
2.827027 -4.927265 1.242665 0.000000 4
2.739309 -2.225894 0.824974 0.000000 9
2.738121 -2.180350 0.823876 0.000000 13
2.740718 -2.123017 0.830890 0.000000 14
2.741198 -2.071765 0.831369 0.000000 15
2.740252 -2.022049 0.826395 0.000000 11
2.739069 -1.974230 0.822110 0.000000 14
2.751804 -1.955589 0.827760 0.000000 1
2.755036 -1.859541 0.830650 0.000000 2
2.736130 1.722670 1.032622 0.000000 3
2.739781 1.788020 1.031540 0.000000 2
2.742570 2.074920 1.089938 0.000000 3
2.736333 2.126936 1.081791 0.000000 3
2.751170 2.225052 1.111606 0.000000 1
2.473197 2.334062 1.078248 0.000000 3
2.423730 2.332833 1.086374 0.000000 4
2.420826 2.368616 1.077645 0.000000 2
0.777059 0.876925 0.631363 0.000000 9
-2.141204 -0.422332 0.718855 0.000000 2
-2.134876 -0.477144 0.722973 0.000000 4
-2.140397 -0.533234 0.729797 0.000000 4
-2.152944 -0.528417 0.716010 0.000000 1
-2.137547 -0.575246 0.721713 0.000000 3
-2.136729 -0.627096 0.721937 0.000000 8
-2.132506 -0.678397 0.732118 0.000000 7
-2.152967 -0.683392 0.710031 0.000000 1
-2.150755 -0.712343 0.708680 0.000000 2
-2.141907 -0.728985 0.728304 0.000000 5
-2.140744 -1.771067 0.825834 0.000000 4
-2.141221 -1.814271 0.809384 0.000000 2
-2.579246 -4.940011 1.413747 0.000000 3
-2.542029 -4.943114 1.412639 0.000000 1
-2.494686 -4.944839 1.406227 0.000000 1
-2.134363 -4.953997 1.359122 0.000000 2
-1.045619 -3.295753 0.865269 0.000000 3
-0.970914 -4.951077 1.243356 0.000000 1
-0.163005 -4.953307 1.215683 0.000000 5
-0.071248 -4.932301 1.189146 0.000000 4
0.187408 -4.935821 1.183902 0.000000 2
0.271882 -4.928373 1.185834 0.000000 3
1.265692 -4.953135 1.243457 0.000000 1
1.274524 -4.940177 1.224946 0.000000 8
1.326499 -4.938134 1.224575 0.000000 10
1.376608 -4.938206 1.222557 0.000000 10
1.422611 -4.937077 1.223815 0.000000 8
1.824656 -4.947476 1.280461 0.000000 2
1.873866 -4.936798 1.269110 0.000000 3
1.922661 -4.955693 1.277478 0.000000 2
1.953095 -4.955124 1.301775 0.000000 1
2.044911 -4.964576 1.313299 0.000000 1
2.183028 -4.953026 1.336750 0.000000 2
2.271399 -4.934486 1.337146 0.000000 3
2.349520 -4.942052 1.342311 0.000000 1
2.393622 -4.937264 1.346530 0.000000 1
2.679260 -4.941824 1.377319 0.000000 7
2.733512 -4.937962 1.381863 0.000000 5
2.799297 -4.951924 1.401139 0.000000 1
2.742395 -2.282427 0.928261 0.000000 11
2.741904 -2.229475 0.930812 0.000000 9
2.737610 -2.176372 0.930311 0.000000 13
2.737617 -2.122753 0.922148 0.000000 13
2.736353 -2.079107 0.926529 0.000000 9
2.754043 -2.079200 0.926123 0.000000 5
2.736884 -2.026478 0.930724 0.000000 15
2.739297 -1.521196 0.874684 0.000000 17
2.780649 -1.495893 0.882753 0.000000 8
2.826368 1.495493 1.127354 0.000000 14
2.738826 1.564830 1.127990 0.000000 6
2.738910 1.620996 1.136191 0.000000 5
2.750887 1.901338 1.188796 0.000000 1
2.734170 1.920341 1.195690 0.000000 2
2.738465 2.136937 1.217789 0.000000 2
2.743802 2.226417 1.241741 0.000000 2
2.613978 2.341263 1.221979 0.000000 3
2.571709 2.337466 1.212515 0.000000 5
2.396165 2.426172 1.237097 0.000000 1
-2.158520 -1.477279 0.872561 0.000000 2
-2.136389 -1.520587 0.879743 0.000000 9
-2.157606 -1.535447 0.874090 0.000000 3
-2.138375 -1.576166 0.870469 0.000000 10
-2.151101 -1.620095 0.869698 0.000000 1
-2.140111 -1.632434 0.863108 0.000000 6
-1.052197 -1.763399 0.584590 0.000000 5
-2.532147 -4.942875 1.561744 0.000000 3
-2.473804 -4.942752 1.553578 0.000000 2
-2.219659 -4.956319 1.520106 0.000000 1
-2.120200 -4.938473 1.501282 0.000000 1
-1.989330 -4.937881 1.475640 0.000000 3
-1.037301 -3.522998 1.023558 0.000000 5
-1.039278 -3.722133 1.068029 0.000000 5
-0.570679 -4.940184 1.376911 0.000000 6
-0.260849 -4.950389 1.339600 0.000000 1
-0.171251 -4.954896 1.343098 0.000000 2
0.157454 -4.953216 1.342091 0.000000 2
0.816558 -4.932770 1.342345 0.000000 5
1.471257 -4.940853 1.368703 0.000000 8
1.544389 -4.964921 1.406340 0.000000 1
1.864287 -4.939372 1.420714 0.000000 2
1.904527 -4.944980 1.423777 0.000000 2
1.974362 -4.939567 1.430907 0.000000 3
2.272800 -4.936773 1.486729 0.000000 7
2.326364 -4.930436 1.490573 0.000000 7
2.374311 -4.932831 1.493251 0.000000 4
2.467536 -4.957428 1.506798 0.000000 2
2.604517 -4.962004 1.533155 0.000000 1
2.625747 -4.934725 1.512506 0.000000 5
2.679670 -4.933782 1.513823 0.000000 8
2.734507 -4.932294 1.525328 0.000000 3
2.741493 -2.271582 1.026596 0.000000 12
2.741738 -2.225250 1.028709 0.000000 9
2.741098 -2.175907 1.031112 0.000000 12
2.755726 -2.149782 1.037949 0.000000 1
2.737314 -2.122636 1.028245 0.000000 9
2.737115 -2.078272 1.022828 0.000000 13
2.752265 -1.966455 1.027230 0.000000 3
2.737401 -1.524104 0.969020 0.000000 7
2.821968 -1.494944 0.978114 0.000000 8
2.782255 1.492711 1.226771 0.000000 9
2.738976 1.528769 1.237131 0.000000 5
2.738866 1.717557 1.274077 0.000000 6
2.736972 1.777688 1.287111 0.000000 5
2.744203 1.982996 1.335576 0.000000 5
2.734644 2.016738 1.345020 0.000000 3
2.738370 2.220905 1.389527 0.000000 2
2.740600 2.258220 1.385871 0.000000 3
2.663904 2.341127 1.386663 0.000000 4
2.621024 2.339464 1.389059 0.000000 3
1.282689 2.353035 1.218176 0.000000 1
-2.130551 -0.376799 0.877670 0.000000 5
-2.140895 -0.424987 0.883923 0.000000 5
-2.140098 -0.473104 0.865028 0.000000 6
-2.154854 -0.586330 0.856544 0.000000 1
-2.154026 -0.635809 0.872795 0.000000 3
-2.138048 -0.872121 0.921095 0.000000 7
-2.138065 -0.924930 0.929957 0.000000 11
-2.139290 -0.973731 0.931866 0.000000 8
-2.137649 -1.022184 0.924031 0.000000 7
-2.137274 -1.066798 0.925104 0.000000 4
-2.154010 -1.089788 0.922981 0.000000 3
-2.138868 -1.123732 0.928427 0.000000 8
-2.136621 -1.170891 0.926381 0.000000 8
-2.137152 -1.224339 0.923960 0.000000 8
-2.141477 -1.271983 0.928118 0.000000 6
-2.157661 -1.321805 0.925133 0.000000 4
-2.136644 -1.329556 0.920011 0.000000 5
-2.142970 -1.731825 0.983671 0.000000 4
-2.136863 -1.774690 0.976290 0.000000 4
-2.143832 -1.815774 0.961882 0.000000 2
-1.054276 -1.826999 0.670900 0.000000 4
-1.056637 -1.967117 0.681474 0.000000 2
-2.498405 -4.955226 1.719016 0.000000 1
-2.443352 -4.943822 1.706250 0.000000 1
-2.169403 -4.937843 1.657777 0.000000 2
-1.982569 -4.934448 1.617058 0.000000 2
-1.037575 -3.584240 1.112373 0.000000 5
-1.039639 -3.732142 1.164668 0.000000 3
-0.504305 -4.956035 1.483181 0.000000 1
1.074576 -4.938258 1.476862 0.000000 7
1.575771 -4.939929 1.544289 0.000000 1
1.625436 -4.939770 1.524777 0.000000 2
1.972043 -4.944314 1.592937 0.000000 2
2.317152 -4.955695 1.641489 0.000000 3
2.365740 -4.936420 1.633785 0.000000 4
2.631853 -4.939024 1.672954 0.000000 2
2.736698 -2.276802 1.126860 0.000000 11
2.736659 -2.222367 1.128533 0.000000 11
2.735256 -2.176557 1.121968 0.000000 13
2.755829 -2.149400 1.137505 0.000000 1
2.737857 -2.128961 1.123078 0.000000 11
2.737167 -2.078233 1.126173 0.000000 11
2.751943 -2.008384 1.116425 0.000000 2
2.824549 1.492563 1.377568 0.000000 5
2.742152 1.616504 1.366680 0.000000 5
2.735528 1.669944 1.382691 0.000000 5
2.732034 1.765272 1.419024 0.000000 3
2.743679 1.826991 1.425865 0.000000 5
2.739945 1.878642 1.438785 0.000000 4
2.742337 2.030308 1.481701 0.000000 4
2.740130 2.075328 1.485900 0.000000 3
2.750699 2.220130 1.527141 0.000000 1
2.743267 2.265958 1.529867 0.000000 3
2.752187 2.337889 1.555699 0.000000 1
2.711027 2.353963 1.570202 0.000000 2
2.676815 2.336860 1.531604 0.000000 6
2.419301 2.341547 1.490054 0.000000 4
1.289560 2.362519 1.330257 0.000000 2
-2.156955 -0.324117 0.962806 0.000000 3
-2.135742 -0.671419 0.926413 0.000000 5
-2.137664 -0.722613 0.926541 0.000000 6
-2.156088 -0.722027 0.927135 0.000000 2
-2.137632 -0.777281 0.926923 0.000000 8
-2.150773 -0.816284 0.918546 0.000000 1
-2.136228 -0.822802 0.924421 0.000000 6
-2.158566 -1.364884 1.003115 0.000000 1
-2.151396 -1.403412 1.010666 0.000000 2
-2.135949 -1.473166 1.021555 0.000000 10
-2.138394 -1.523206 1.033106 0.000000 8
-2.135819 -1.584931 1.026349 0.000000 8
-1.053459 -1.850436 0.701684 0.000000 1
-2.470239 -4.938452 1.865830 0.000000 2
-2.432572 -4.928640 1.857825 0.000000 1
-2.389039 -4.934693 1.851274 0.000000 1
-2.127789 -4.944259 1.805886 0.000000 2
-1.987705 -4.934343 1.771781 0.000000 3
-1.042827 -3.581202 1.218570 0.000000 8
-1.034945 -3.720778 1.233937 0.000000 3
-1.037728 -3.876837 1.313497 0.000000 4
-1.271558 -4.970677 1.689355 0.000000 1
-1.070518 -4.924694 1.652135 0.000000 1
-1.033232 -4.957963 1.661252 0.000000 3
0.966361 -4.954117 1.639949 0.000000 2
1.047160 -4.963942 1.643551 0.000000 1
1.177560 -4.941959 1.619731 0.000000 7
1.346299 -4.952887 1.667205 0.000000 1
1.576148 -4.937469 1.687808 0.000000 1
1.613276 -4.930233 1.689978 0.000000 1
1.655086 -4.933701 1.696291 0.000000 1
1.707613 -4.956192 1.711418 0.000000 2
1.827991 -4.951564 1.724690 0.000000 1
1.927728 -4.938844 1.736986 0.000000 4
1.986505 -4.943835 1.744651 0.000000 2
2.172301 -4.958162 1.771152 0.000000 4
2.225228 -4.939895 1.768203 0.000000 4
2.272785 -4.934993 1.767951 0.000000 6
2.320942 -4.935178 1.772051 0.000000 7
2.585809 -4.929086 1.839290 0.000000 1
2.739698 -2.273687 1.222297 0.000000 13
2.741535 -2.226733 1.228370 0.000000 7
2.739324 -2.176258 1.226973 0.000000 7
2.741738 -2.128001 1.223808 0.000000 6
2.741629 -1.879304 1.220870 0.000000 7
2.828085 -1.505770 1.171821 0.000000 9
2.778328 1.508836 1.477664 0.000000 9
2.750611 1.668312 1.538232 0.000000 2
2.738429 1.727694 1.527892 0.000000 3
2.757370 1.804828 1.566009 0.000000 1
2.735761 1.868887 1.573701 0.000000 5
2.742606 1.934028 1.587672 0.000000 2
2.737363 2.081170 1.627478 0.000000 4
2.742187 2.135560 1.637536 0.000000 4
2.722933 2.331969 1.687813 0.000000 6
2.667917 2.336743 1.685874 0.000000 7
2.473294 2.338672 1.629313 0.000000 8
2.425008 2.341390 1.629308 0.000000 8
2.396006 2.358005 1.635864 0.000000 1
-0.900618 -0.694224 0.557925 0.000000 1
-2.137357 -0.331568 1.019931 0.000000 3
-2.136359 -0.382600 1.014450 0.000000 2
-2.135926 -0.430454 1.028159 0.000000 4
-2.138448 -0.481005 1.029908 0.000000 6
-2.157011 -0.507071 1.010777 0.000000 1
-2.151595 -0.627580 0.982262 0.000000 2
-2.138202 -0.874573 1.072301 0.000000 8
-2.150933 -0.864417 1.078214 0.000000 2
-2.155339 -0.912980 1.063806 0.000000 2
-2.140967 -0.929559 1.073931 0.000000 7
-2.166011 -0.974567 1.058017 0.000000 2
-2.132841 -0.980204 1.078048 0.000000 8
-2.140930 -1.027460 1.072456 0.000000 8
-2.135108 -1.076519 1.072570 0.000000 7
-2.138788 -1.121539 1.076100 0.000000 8
-2.150281 -1.154207 1.066173 0.000000 1
-2.135357 -1.179171 1.074752 0.000000 7
-2.154717 -1.211287 1.069816 0.000000 1
-2.136864 -1.226915 1.075386 0.000000 7
-2.130577 -1.278763 1.068620 0.000000 4
-2.157171 -1.305088 1.064042 0.000000 2
-2.135661 -1.330736 1.074039 0.000000 6
-2.129961 -1.725698 1.117133 0.000000 3
-2.139772 -1.772199 1.112410 0.000000 2
-2.150686 -1.815950 1.112776 0.000000 2
-1.055239 -1.644512 0.703131 0.000000 1
-1.051608 -2.038737 0.799629 0.000000 3
-2.395361 -4.947588 2.017215 0.000000 1
-2.348132 -4.947044 2.007245 0.000000 1
-1.077742 -3.293870 1.217426 0.000000 6
-1.038901 -3.721359 1.370629 0.000000 6
-1.038712 -3.876310 1.414380 0.000000 5
-1.075089 -4.946540 1.802333 0.000000 1
0.568850 -4.940287 1.735279 0.000000 4
1.085577 -4.963508 1.789294 0.000000 1
1.274205 -4.936935 1.777000 0.000000 6
1.465983 -4.956660 1.827831 0.000000 1
1.616772 -4.935291 1.839776 0.000000 1
1.653969 -4.927753 1.842224 0.000000 1
1.872213 -4.944697 1.880075 0.000000 2
1.919704 -4.935521 1.886911 0.000000 4
1.984944 -4.935108 1.888367 0.000000 2
2.173328 -4.933976 1.910315 0.000000 6
2.227802 -4.939752 1.919613 0.000000 3
2.272411 -4.946600 1.922846 0.000000 5
2.481398 -4.937116 1.970710 0.000000 3
2.737797 -2.217698 1.326295 0.000000 3
2.758220 -2.177927 1.347615 0.000000 1
2.744407 -2.129738 1.335742 0.000000 2
2.734418 -2.074444 1.335117 0.000000 5
2.751294 -1.960282 1.326225 0.000000 2
2.752219 -1.884034 1.323782 0.000000 2
2.739080 -1.823666 1.293429 0.000000 4
2.752607 -1.521989 1.260275 0.000000 3
2.823952 -1.502054 1.285295 0.000000 4
2.829644 1.491824 1.630085 0.000000 5
2.737998 1.572294 1.629157 0.000000 3
2.735472 1.781446 1.690291 0.000000 1
2.735266 1.981593 1.721992 0.000000 3
2.739330 2.167399 1.785481 0.000000 3
2.732752 2.335401 1.839168 0.000000 6
2.521508 2.333346 1.773586 0.000000 5
2.432045 2.336277 1.773019 0.000000 8
2.397703 2.373539 1.786102 0.000000 4
1.293150 2.375966 1.569136 0.000000 2
-2.152982 -0.284943 1.109138 0.000000 1
-2.131533 -0.677484 1.069853 0.000000 4
-2.137875 -0.719750 1.075310 0.000000 7
-2.137327 -0.773254 1.073536 0.000000 7
-2.151598 -0.791546 1.079792 0.000000 2
-2.134581 -0.831595 1.077393 0.000000 7
-2.155128 -1.225994 1.142315 0.000000 2
-2.135171 -1.425826 1.175177 0.000000 8
-2.155745 -1.422889 1.160508 0.000000 1
-2.137426 -1.473538 1.172263 0.000000 7
-2.150675 -1.520223 1.167220 0.000000 1
-2.134516 -1.523359 1.170088 0.000000 4
-2.142436 -1.577779 1.172083 0.000000 8
-2.130522 -1.814380 1.218659 0.000000 2
-1.054785 -1.792849 0.782235 0.000000 1
-2.327350 -4.937485 2.161496 0.000000 2
-2.283262 -4.941080 2.153289 0.000000 2
-2.122967 -4.954196 2.125035 0.000000 1
-2.084036 -4.947001 2.114070 0.000000 2
-1.994173 -4.959871 2.100966 0.000000 1
-1.078594 -3.305049 1.323113 0.000000 2
-1.039470 -3.295142 1.281956 0.000000 2
-1.042847 -3.333406 1.321221 0.000000 6
-0.527614 -4.951298 1.878558 0.000000 2
-0.326718 -4.954701 1.892942 0.000000 2
-0.288250 -4.952832 1.888381 0.000000 2
0.719955 -4.952680 1.888247 0.000000 3
0.769689 -4.937043 1.889685 0.000000 5
0.823097 -4.933789 1.882702 0.000000 3
1.222895 -4.953724 1.940410 0.000000 2
1.277403 -4.935563 1.921032 0.000000 5
1.314095 -4.937357 1.926691 0.000000 4
1.577204 -4.933085 1.984289 0.000000 1
1.619105 -4.937454 1.992179 0.000000 1
1.659756 -4.937988 1.998531 0.000000 1
1.830433 -4.950557 2.030589 0.000000 1
1.925559 -4.931849 2.034105 0.000000 5
2.180380 -4.954509 2.094879 0.000000 1
2.226952 -4.937134 2.066728 0.000000 4
2.756424 -2.366642 1.486515 0.000000 2
2.738387 -2.183199 1.447532 0.000000 2
2.739921 -2.130357 1.443560 0.000000 3
2.753116 -2.118805 1.442628 0.000000 1
2.736062 -2.067234 1.430776 0.000000 5
2.737231 -2.023768 1.424025 0.000000 6
2.742680 -1.823972 1.383839 0.000000 7
2.756215 -1.794542 1.390759 0.000000 2
2.740513 -1.765979 1.370887 0.000000 5
2.755879 -1.515345 1.372105 0.000000 1
2.806827 -1.499481 1.391353 0.000000 1
2.738360 1.832028 1.844577 0.000000 1
2.738067 1.978786 1.878942 0.000000 4
2.725105 2.331916 1.979798 0.000000 9
2.673033 2.341336 1.982826 0.000000 7
2.622210 2.350890 1.977335 0.000000 1
2.521378 2.339916 1.938654 0.000000 5
2.475539 2.340245 1.934027 0.000000 6
2.416809 2.355636 1.928701 0.000000 2
2.392139 2.413937 1.944532 0.000000 2
-2.135513 -0.422560 1.166132 0.000000 2
-2.132748 -0.475972 1.162267 0.000000 4
-2.136644 -0.529968 1.172406 0.000000 7
-2.150578 -0.527852 1.161936 0.000000 1
-2.133577 -0.577104 1.172572 0.000000 9
-2.133364 -0.874917 1.220955 0.000000 6
-2.139587 -0.924920 1.218501 0.000000 7
-2.140847 -0.973491 1.218658 0.000000 6
-2.131217 -1.021852 1.223541 0.000000 7
-2.159647 -1.060498 1.223997 0.000000 1
-2.138736 -1.074930 1.218241 0.000000 5
-2.134291 -1.121129 1.224077 0.000000 6
-2.154019 -1.135650 1.222993 0.000000 1
-2.140951 -1.170016 1.221080 0.000000 5
-2.140138 -1.217383 1.217225 0.000000 5
-2.144593 -1.624807 1.271273 0.000000 5
-2.133455 -1.666701 1.258458 0.000000 2
-2.143081 -1.721430 1.270528 0.000000 3
-2.157422 -1.789781 1.287248 0.000000 1
-2.225090 -4.939424 2.306270 0.000000 3
-2.120246 -4.951896 2.287831 0.000000 1
-1.986121 -4.946716 2.256192 0.000000 1
-1.042706 -3.295209 1.377242 0.000000 3
-0.622045 -4.948159 2.056686 0.000000 3
-0.463326 -4.950080 2.040192 0.000000 1
0.686229 -4.955684 2.046145 0.000000 1
1.161186 -4.956345 2.090875 0.000000 1
1.241337 -4.955743 2.089916 0.000000 2
1.277580 -4.938326 2.072350 0.000000 5
1.575028 -4.924084 2.134643 0.000000 1
1.621305 -4.939205 2.148496 0.000000 1
1.867994 -4.938651 2.176335 0.000000 4
1.920056 -4.936088 2.185305 0.000000 4
2.082630 -4.936278 2.210847 0.000000 4
2.122877 -4.932940 2.213758 0.000000 3
2.265857 -4.936347 2.278645 0.000000 2
2.752209 -2.378990 1.599318 0.000000 1
2.735573 -2.322484 1.585817 0.000000 3
2.738746 -2.118263 1.543195 0.000000 5
2.737515 -2.070698 1.529450 0.000000 6
2.737311 -2.017811 1.517701 0.000000 6
2.756009 -1.981582 1.529738 0.000000 1
2.735529 -1.820845 1.464929 0.000000 7
2.743293 -1.777031 1.467823 0.000000 6
2.750854 -1.539126 1.473994 0.000000 1
2.831671 -1.503677 1.506301 0.000000 1
2.774472 1.494304 1.892933 0.000000 1
2.728129 1.496179 1.878350 0.000000 1
2.737414 1.685670 1.940443 0.000000 1
2.743923 1.838976 1.986772 0.000000 2
2.738867 1.974140 2.044880 0.000000 3
2.736017 2.033480 2.032036 0.000000 2
2.741735 2.170408 2.077515 0.000000 4
2.736699 2.261484 2.127133 0.000000 3
2.719419 2.336378 2.126146 0.000000 6
2.679701 2.352354 2.125221 0.000000 2
2.486331 2.353234 2.096848 0.000000 1
2.408090 2.369561 2.077227 0.000000 2
-2.148933 -0.285724 1.271021 0.000000 1
-2.141212 -0.321450 1.275992 0.000000 3
-2.139670 -0.373231 1.271015 0.000000 5
-2.141140 -0.716974 1.222780 0.000000 5
-2.136886 -0.774222 1.220016 0.000000 6
-2.137789 -0.819172 1.225336 0.000000 6
-2.161646 -0.933842 1.326349 0.000000 2
-2.139012 -1.216439 1.326514 0.000000 6
-2.132531 -1.324203 1.325259 0.000000 8
-2.128260 -1.371338 1.324437 0.000000 5
-2.158360 -1.404109 1.323118 0.000000 1
-2.134583 -1.422006 1.318771 0.000000 5
-2.154857 -1.683950 1.355499 0.000000 1
-2.132649 -1.738899 1.353479 0.000000 1
-2.140377 -1.773171 1.362862 0.000000 2
-1.053433 -1.824963 0.894185 0.000000 2
-1.055448 -1.968361 0.922875 0.000000 2
-1.050807 -3.564077 1.599366 0.000000 1
-0.817245 -4.954188 2.223100 0.000000 1
-0.621354 -4.944096 2.205084 0.000000 3
-0.358243 -4.961609 2.188962 0.000000 1
-0.183815 -4.951441 2.176349 0.000000 1
0.480458 -4.950930 2.180454 0.000000 2
0.940121 -4.955577 2.219420 0.000000 1
1.185531 -4.953246 2.232918 0.000000 2
1.224127 -4.939199 2.226131 0.000000 5
1.272396 -4.937146 2.225565 0.000000 6
1.525028 -4.944493 2.294003 0.000000 2
1.775764 -4.933093 2.332512 0.000000 5
1.822257 -4.936163 2.331445 0.000000 6
2.035216 -4.942107 2.367507 0.000000 4
2.733332 -2.377247 1.676730 0.000000 2
2.735561 -2.325586 1.695678 0.000000 2
2.753661 -2.270563 1.687656 0.000000 2
2.739584 -2.270590 1.681288 0.000000 3
2.739139 -2.221105 1.667872 0.000000 2
2.763880 -2.178901 1.678110 0.000000 1
2.732317 -2.064652 1.626999 0.000000 2
2.738423 -2.026814 1.617963 0.000000 5
2.739419 -1.961822 1.628407 0.000000 2
2.724346 -1.916624 1.614294 0.000000 1
2.751857 -1.564111 1.581735 0.000000 1
2.750483 -1.513898 1.576314 0.000000 1
2.805920 -1.498889 1.601235 0.000000 1
2.782920 1.503353 2.032941 0.000000 2
2.738309 1.526348 2.030201 0.000000 2
2.736320 1.679420 2.090824 0.000000 3
2.738824 1.826064 2.127531 0.000000 3
2.735738 1.971858 2.188352 0.000000 3
2.741156 2.145340 2.249434 0.000000 1
2.744201 2.277155 2.286040 0.000000 3
2.665501 2.337700 2.273653 0.000000 5
2.629527 2.356574 2.295565 0.000000 1
2.587520 2.350887 2.268957 0.000000 2
2.474533 2.343986 2.236396 0.000000 4
2.406218 2.364712 2.235101 0.000000 1
1.291410 2.375649 1.979825 0.000000 5
-2.141761 -0.287823 1.352480 0.000000 1
-2.138492 -0.577205 1.320265 0.000000 3
-2.139457 -0.627066 1.330410 0.000000 7
-2.153663 -0.624396 1.317674 0.000000 1
-2.138372 -0.677566 1.333245 0.000000 6
-2.136381 -0.717683 1.323431 0.000000 6
-2.151777 -0.739846 1.308456 0.000000 1
-2.152318 -0.772262 1.332480 0.000000 4
-2.152474 -0.868386 1.323063 0.000000 2
-2.158253 -1.326653 1.401353 0.000000 1
-2.140054 -1.423662 1.427332 0.000000 8
-2.135388 -1.474039 1.424269 0.000000 10
-2.143450 -1.527483 1.426735 0.000000 5
-2.140193 -1.579703 1.429800 0.000000 8
-2.141307 -1.765161 1.474873 0.000000 2
-2.151501 -1.788130 1.459671 0.000000 1
-2.134842 -1.813892 1.456035 0.000000 2
-1.138194 -3.303518 1.600063 0.000000 1
-0.601633 -4.953501 2.356836 0.000000 1
-0.041904 -4.954159 2.324267 0.000000 2
0.618568 -4.959074 2.348731 0.000000 1
0.788774 -4.937726 2.329729 0.000000 3
0.831475 -4.950350 2.362394 0.000000 1
1.122718 -4.934472 2.381664 0.000000 3
1.163559 -4.954350 2.404203 0.000000 1
2.739079 -2.371261 1.825148 0.000000 1
2.733805 -2.222475 1.788837 0.000000 1
2.735422 -2.194644 1.783629 0.000000 1
2.751278 -2.173043 1.786639 0.000000 1
2.752284 -2.117075 1.775697 0.000000 1
2.740719 -2.002393 1.748162 0.000000 1
2.736148 -1.973716 1.740757 0.000000 1
2.752081 -1.952366 1.744807 0.000000 1
2.738622 -1.921018 1.732811 0.000000 1
2.752678 -1.872505 1.731743 0.000000 1
2.756370 -1.834130 1.727551 0.000000 2
2.762606 -1.796604 1.724988 0.000000 1
2.733616 -1.560134 1.680236 0.000000 1
2.736902 -1.523534 1.678135 0.000000 2
2.821016 -1.501341 1.718961 0.000000 1
2.835396 1.495302 2.186576 0.000000 2
2.784022 1.495169 2.189706 0.000000 2
2.745711 1.554114 2.186447 0.000000 1
2.739573 1.682219 2.236411 0.000000 3
2.732551 1.725420 2.244492 0.000000 1
2.742210 1.817802 2.293311 0.000000 3
2.741338 1.983019 2.346092 0.000000 1
2.741345 2.083262 2.392403 0.000000 2
2.421229 2.341019 2.380823 0.000000 3
2.401646 2.356352 2.389517 0.000000 1
-2.139573 -0.425690 1.432877 0.000000 4
-2.136319 -0.472310 1.424489 0.000000 8
-2.140065 -0.527142 1.427505 0.000000 10
-2.151567 -0.627122 1.428743 0.000000 3
-2.132572 -0.871857 1.471412 0.000000 6
-2.135223 -0.922722 1.469134 0.000000 5
-2.152212 -0.936422 1.478590 0.000000 2
-2.131670 -0.978622 1.470522 0.000000 6
-2.135681 -1.028080 1.469125 0.000000 6
-2.139782 -1.075597 1.476046 0.000000 6
-2.132177 -1.120812 1.479884 0.000000 8
-2.140845 -1.172448 1.479329 0.000000 5
-2.133236 -1.227447 1.474530 0.000000 6
-2.138398 -1.520319 1.524998 0.000000 7
-2.132626 -1.571195 1.515407 0.000000 5
-2.141722 -1.624081 1.512455 0.000000 5
-2.145752 -1.829136 1.556872 0.000000 1
-1.128944 -3.310146 1.704431 0.000000 3
-1.040178 -3.526973 1.812164 0.000000 2
-1.037035 -3.825427 1.969484 0.000000 4
2.737732 -2.325477 1.934801 0.000000 2
2.737498 -2.266860 1.920359 0.000000 2
2.743189 -2.140897 1.894323 0.000000 1
2.755539 -2.117898 1.895714 0.000000 1
2.734495 -2.067930 1.874248 0.000000 2
2.753445 -2.006587 1.871745 0.000000 1
2.754787 -1.952880 1.862167 0.000000 1
2.734431 -1.919209 1.845188 0.000000 1
2.740541 -1.881504 1.841715 0.000000 2
2.739802 -1.828698 1.832329 0.000000 2
2.739119 -1.561003 1.794330 0.000000 1
2.735545 -1.523015 1.788158 0.000000 2
2.816348 -1.500280 1.830219 0.000000 1
2.751593 1.649086 2.375095 0.000000 1
2.751825 1.695838 2.393735 0.000000 1
1.289473 2.339195 2.249629 0.000000 2
-0.875711 -0.702042 0.753597 0.000000 1
-2.142486 -0.370957 1.516505 0.000000 6
-2.142376 -0.422084 1.526702 0.000000 5
-2.135465 -0.468105 1.528411 0.000000 5
-2.138801 -0.771257 1.475958 0.000000 6
-2.134978 -0.827389 1.478519 0.000000 6
-2.141045 -0.861775 1.563841 0.000000 5
-2.137614 -0.920786 1.567477 0.000000 5
-2.154186 -0.931089 1.578065 0.000000 2
-2.142164 -0.974803 1.571946 0.000000 4
-2.136046 -1.028831 1.568367 0.000000 4
-2.146629 -1.068894 1.569242 0.000000 3
-2.151670 -1.079043 1.561203 0.000000 1
-2.135660 -1.125968 1.570836 0.000000 4
-2.141178 -1.170978 1.570652 0.000000 5
-2.136762 -1.227013 1.559666 0.000000 5
-2.140138 -1.277412 1.573697 0.000000 3
-2.155492 -1.275750 1.586769 0.000000 2
-2.136843 -1.326215 1.573323 0.000000 7
-2.151282 -1.522029 1.576863 0.000000 3
-2.140290 -1.618117 1.609875 0.000000 4
-2.140240 -1.682785 1.613313 0.000000 4
-2.150892 -1.831448 1.656129 0.000000 1
-1.072152 -1.467870 0.970495 0.000000 6
-1.058299 -1.582465 0.970909 0.000000 2
-1.127512 -3.294731 1.811129 0.000000 2
-1.132655 -3.304968 1.823197 0.000000 4
-1.043653 -3.296986 1.776410 0.000000 3
2.747132 -2.374019 2.078204 0.000000 1
2.731728 -2.263593 2.040575 0.000000 2
2.732928 -2.220980 2.030412 0.000000 1
2.739868 -2.181282 2.024468 0.000000 2
2.734314 -2.053621 1.991818 0.000000 1
2.751388 -2.032688 1.996830 0.000000 1
2.734333 -1.985665 1.977300 0.000000 2
2.739973 -1.815361 1.947892 0.000000 1
2.756672 -1.564322 1.920142 0.000000 1
2.730845 -1.538191 1.873869 0.000000 2
2.795444 -1.496336 1.935159 0.000000 1
1.274735 2.334849 2.392132 0.000000 3
-2.136292 -0.327345 1.621008 0.000000 4
-2.141685 -0.377713 1.621506 0.000000 6
-2.134734 -0.429518 1.615743 0.000000 5
-2.151854 -0.426964 1.606107 0.000000 1
-2.152140 -0.535845 1.571040 0.000000 2
-2.132329 -0.626550 1.576935 0.000000 5
-2.137923 -0.680050 1.571139 0.000000 4
-2.138721 -0.720938 1.572008 0.000000 6
-2.135400 -0.780580 1.561847 0.000000 6
-2.132176 -0.830389 1.561529 0.000000 4
-0.027721 -1.710168 0.047078 0.000000 8
0.206601 -1.654141 0.050853 0.000000 3
0.315394 -1.606649 0.051176 0.000000 3
0.469971 -1.515131 0.052340 0.000000 8
0.685313 -0.984027 0.051133 0.000000 6
-0.653623 -1.494532 0.046325 0.000000 1
-0.314071 -1.753468 0.047153 0.000000 2
-0.151579 -1.806566 0.045921 0.000000 1
-0.069496 -1.808978 0.047267 0.000000 8
0.103926 -1.801631 0.047713 0.000000 1
0.255390 -1.775508 0.051312 0.000000 2
0.467842 -1.663569 0.047980 0.000000 12
0.518668 -1.609036 0.047959 0.000000 7
-0.742869 -0.823120 0.051973 0.000000 7
-0.270874 -1.928124 0.050743 0.000000 2
0.167112 -1.908249 0.051848 0.000000 5
0.279037 -1.919168 0.048293 0.000000 10
0.474061 -1.808860 0.050922 0.000000 4
0.566616 -1.781544 0.048658 0.000000 8
0.289373 -0.191517 0.052066 0.000000 4
-0.884630 -0.877293 0.051350 0.000000 7
-1.018920 -1.517458 0.049325 0.000000 3
-0.918360 -1.672621 0.048941 0.000000 2
-0.606114 -1.957562 0.050606 0.000000 1
-0.465700 -2.053356 0.047981 0.000000 1
-0.403140 -2.057411 0.051039 0.000000 1
-0.271878 -2.100528 0.050739 0.000000 1
-0.223505 -2.110701 0.050813 0.000000 1
0.125743 -2.110068 0.051584 0.000000 6
0.172975 -2.116681 0.050809 0.000000 7
0.227517 -2.108050 0.050679 0.000000 4
0.283202 -2.105810 0.048280 0.000000 4
0.309982 -2.102171 0.048030 0.000000 1
0.379305 -2.066114 0.051168 0.000000 11
0.424602 -2.077987 0.049379 0.000000 7
0.517321 -2.023040 0.051290 0.000000 6
0.518740 -2.011446 0.049162 0.000000 4
0.550413 -2.001296 0.047477 0.000000 1
0.624399 -1.966433 0.048942 0.000000 7
0.668267 -1.924409 0.050995 0.000000 12
0.712091 -1.870701 0.051215 0.000000 7
0.441052 -0.073098 0.051187 0.000000 3
-1.405645 -1.052732 0.047582 0.000000 1
-1.320145 -1.506660 0.048945 0.000000 1
-0.710868 -2.252363 0.048536 0.000000 2
-0.532372 -2.375814 0.048096 0.000000 2
-0.472128 -2.353613 0.050112 0.000000 1
-0.462392 -2.364023 0.049323 0.000000 1
-0.426865 -2.365894 0.050437 0.000000 4
-0.308217 -2.422835 0.047540 0.000000 1
-0.278236 -2.400953 0.050834 0.000000 1
-0.229957 -2.415118 0.050193 0.000000 1
-0.168724 -2.418167 0.050970 0.000000 5
-0.177010 -2.431573 0.048523 0.000000 2
-0.117579 -2.422116 0.050955 0.000000 3
-0.086016 -2.414849 0.052076 0.000000 2
-0.026255 -2.428310 0.050697 0.000000 3
0.045433 -2.450276 0.047958 0.000000 1
0.069792 -2.414819 0.050643 0.000000 4
0.118675 -2.415879 0.051464 0.000000 1
0.173332 -2.411012 0.050780 0.000000 4
0.171536 -2.413195 0.049419 0.000000 4
0.227813 -2.415708 0.049277 0.000000 4
0.219137 -2.414137 0.050093 0.000000 1
0.267998 -2.402874 0.050325 0.000000 2
0.283599 -2.416035 0.048400 0.000000 2
0.307102 -2.405507 0.049012 0.000000 1
